802.289022 543.633777 547.289079 1 0 0 0
802.457630 543.430374 546.514555 1 0 0 0
802.914157 542.963976 547.032583 1 0 0 0
802.491258 542.660452 547.411218 1 0 0 0
802.543087 542.270422 548.083977 1 0 0 0
801.455800 542.496101 547.888939 1 0 0 0
801.552819 541.659847 547.732474 1 0 0 0
800.853881 541.483510 548.713114 1 0 0 0
800.851884 542.102309 548.543302 1 0 0 0
800.874466 541.806918 547.799078 1 0 0 0
801.098599 541.222798 547.844460 1 0 0 0
802.001846 541.554393 547.264389 1 0 0 0
801.563377 541.509473 546.976882 1 0 0 0
801.387938 540.842898 546.410138 1 0 0 0
802.184354 540.810321 547.103240 1 0 0 0
802.783882 540.724905 547.595210 1 0 0 0
802.808836 540.777381 548.486598 1 0 0 0
802.121181 540.945385 547.992504 1 0 0 0
802.885581 541.806157 546.958450 1 0 0 0
802.776845 541.460076 547.302318 1 0 0 0
803.852981 541.265491 547.835471 1 0 0 0
804.452560 541.342910 547.098197 1 0 0 0
804.488047 541.579754 546.872500 1 0 0 0
803.840867 542.319331 547.310798 1 0 0 0
803.818152 541.798633 547.297490 1 0 0 0
804.424424 542.527493 546.994100 1 0 0 0
803.270905 541.613259 546.181826 1 0 0 0
803.272565 541.265438 547.113759 1 0 0 0
803.427974 542.366651 547.223263 1 0 0 0
803.737241 543.135389 546.422163 1 0 0 0
803.104002 542.752734 545.065832 1 0 0 0
804.284210 542.787101 545.881730 1 0 0 0
803.987088 541.994435 546.461399 1 0 0 0
803.271830 542.327898 546.564000 1 0 0 0
803.715898 542.183264 545.575705 1 0 0 0
802.934700 541.904091 544.819395 1 0 0 0
803.719377 542.221401 544.565132 1 0 0 0
803.338247 542.580338 544.654205 1 0 0 0
803.144420 543.184479 544.374553 1 0 0 0
802.367863 542.635945 544.511541 1 0 0 0
802.176065 542.843385 545.661465 1 0 0 0
801.519589 542.661119 546.153521 1 0 0 0
801.236748 543.135563 546.700122 1 0 0 0
802.026659 543.825192 547.101170 1 0 0 0
801.415491 544.246045 546.961693 1 0 0 0
801.996353 544.207936 545.803180 1 0 0 0
802.026819 544.506249 545.002491 1 0 0 0
802.783128 544.654263 545.058222 1 0 0 0
803.631746 544.277984 544.988261 1 0 0 0
803.188406 544.400465 545.772805 1 0 0 0
803.382303 543.854670 545.028086 1 0 0 0
802.256423 543.591523 544.234960 1 0 0 0
802.034270 544.451038 544.124561 1 0 0 0
802.309370 544.116945 543.641107 1 0 0 0
802.043885 544.040893 542.739741 1 0 0 0
801.548579 543.405637 543.323086 1 0 0 0
801.435785 543.226903 543.532094 1 0 0 0
802.062744 543.314723 544.391729 1 0 0 0
802.549967 542.642522 543.984071 1 0 0 0
802.774103 543.511511 542.987015 1 0 0 0
802.717939 543.570373 542.114404 1 0 0 0
802.681352 542.397315 542.394853 1 0 0 0
802.070503 543.666112 542.417422 1 0 0 0
802.485623 543.128311 542.577357 1 0 0 0
803.334046 542.072010 543.311121 1 0 0 0
803.263516 542.029064 543.682577 1 0 0 0
801.573127 542.043813 542.904400 1 0 0 0
801.839638 542.283139 543.569044 1 0 0 0
802.506942 541.436308 543.783587 1 0 0 0
801.900524 541.175272 542.866649 1 0 0 0
801.471141 540.979263 543.650527 1 0 0 0
801.769336 540.475158 543.988614 1 0 0 0
801.417786 540.428813 544.501695 1 0 0 0
802.159628 540.987572 545.320791 1 0 0 0
802.581178 540.917728 544.555388 1 0 0 0
802.026175 541.764148 545.016369 1 0 0 0
801.634291 541.716953 544.985718 1 0 0 0
801.419344 540.865356 544.724234 1 0 0 0
801.296186 541.657386 544.356769 1 0 0 0
800.672551 541.486975 544.103499 1 0 0 0
800.951848 542.039535 544.797110 1 0 0 0
800.927168 542.316944 544.195134 1 0 0 0
799.871704 542.246427 544.606814 1 0 0 0
800.317412 542.136535 544.437063 1 0 0 0
800.433534 542.109443 543.365521 1 0 0 0
799.102648 542.689817 542.900539 1 0 0 0
799.610424 542.967977 542.487944 1 0 0 0
800.511239 543.324716 543.346855 1 0 0 0
800.887942 542.682552 543.071537 1 0 0 0
800.065472 542.549653 543.210621 1 0 0 0
800.477750 542.844197 543.891092 1 0 0 0
799.935597 542.884204 544.111712 1 0 0 0
799.941390 543.360824 543.965420 1 0 0 0
800.152753 543.031256 544.831576 1 0 0 0
800.300190 543.658508 545.241898 1 0 0 0
800.437261 543.250591 545.252382 1 0 0 0
800.586104 544.506654 544.946700 1 0 0 0
800.643657 543.107774 544.446843 1 0 0 0
799.840620 543.426661 544.535115 1 0 0 0
800.194203 544.175329 544.845453 1 0 0 0
799.817498 544.557294 544.324550 1 0 0 0
800.428241 544.373635 543.920935 1 0 0 0
800.562571 545.265344 544.333015 1 0 0 0
801.046818 545.477924 544.745457 1 0 0 0
801.671694 545.966284 543.877861 1 0 0 0
802.042535 545.475831 544.797399 1 0 0 0
801.759865 545.492063 543.478426 1 0 0 0
801.033638 545.486770 543.221246 1 0 0 0
800.998559 544.855903 542.666614 1 0 0 0
800.665642 545.510364 542.201034 1 0 0 0
801.027403 545.622455 542.203014 1 0 0 0
801.724752 545.195956 541.684654 1 0 0 0
801.952903 545.482770 542.402544 1 0 0 0
801.800858 544.758715 543.463449 1 0 0 0
802.429813 545.297654 543.788513 1 0 0 0
801.364056 544.962324 543.981783 1 0 0 0
801.560233 545.225781 542.342134 1 0 0 0
802.166307 544.589371 542.190162 1 0 0 0
802.527266 544.553777 543.027888 1 0 0 0
803.284332 545.109939 543.368045 1 0 0 0
802.770041 544.783622 543.606114 1 0 0 0
803.166809 544.308161 543.671540 1 0 0 0
803.675017 543.873661 543.677318 1 0 0 0
803.606708 543.648620 543.802105 1 0 0 0
803.341271 543.752535 542.622246 1 0 0 0
803.802539 543.167489 543.054841 1 0 0 0
803.966930 543.808190 542.934450 1 0 0 0
804.219496 543.539820 542.391288 1 0 0 0
803.372899 543.138796 542.407532 1 0 0 0
803.138420 543.926974 542.084166 1 0 0 0
803.391074 545.316360 542.452537 1 0 0 0
803.446940 544.792216 541.997865 1 0 0 0
804.054249 544.633703 542.392969 1 0 0 0
803.802535 544.745919 542.604770 1 0 0 0
803.900475 544.728273 543.602191 1 0 0 0
804.121093 545.169047 543.335453 1 0 0 0
804.335803 544.596283 543.113242 1 0 0 0
803.896397 545.144296 542.734193 1 0 0 0
803.909321 545.205576 542.014385 1 0 0 0
803.979578 545.796416 542.688092 1 0 0 0
804.647907 545.712928 543.518582 1 0 0 0
804.825042 545.492813 544.360181 1 0 0 0
805.311094 545.381176 543.488653 1 0 0 0
805.022266 545.237244 543.026501 1 0 0 0
805.780828 544.558357 541.968461 1 0 0 0
806.577430 544.799054 542.630668 1 0 0 0
805.600136 545.344905 542.178173 1 0 0 0
805.635800 544.083666 542.914196 1 0 0 0
804.688041 544.066301 542.576372 1 0 0 0
804.943399 544.663166 542.469197 1 0 0 0
805.051263 544.762247 541.245314 1 0 0 0
805.338910 545.306584 541.244534 1 0 0 0
804.644662 544.959148 540.840902 1 0 0 0
805.361768 544.725940 540.280311 1 0 0 0
804.876444 545.281138 540.794315 1 0 0 0
804.376113 544.775420 540.162762 1 0 0 0
803.709078 543.808295 540.096027 1 0 0 0
803.394555 544.536913 540.699903 1 0 0 0
804.012311 544.020778 539.956869 1 0 0 0
803.505294 544.749823 539.923412 1 0 0 0
804.500381 544.073307 539.931188 1 0 0 0
804.195456 543.855043 540.894246 1 0 0 0
804.426230 544.071342 540.481895 1 0 0 0
804.513945 543.318371 540.201883 1 0 0 0
803.972086 543.204712 541.065496 1 0 0 0
804.510413 543.087215 541.234015 1 0 0 0
805.007673 543.081502 541.133883 1 0 0 0
804.693557 543.441200 541.426846 1 0 0 0
804.095212 543.633557 541.765483 1 0 0 0
804.558378 542.879821 541.873293 1 0 0 0
805.180552 543.254066 541.955569 1 0 0 0
805.737732 543.394539 541.501195 1 0 0 0
806.309825 542.428827 541.481634 1 0 0 0
806.711389 542.911859 542.223317 1 0 0 0
806.355274 543.417537 542.369640 1 0 0 0
806.344823 542.269765 542.759531 1 0 0 0
805.617501 543.136157 542.241576 1 0 0 0
806.169785 543.691766 543.378358 1 0 0 0
805.977871 542.836804 543.090326 1 0 0 0
805.517414 542.721168 543.155751 1 0 0 0
804.607514 542.672402 542.991779 1 0 0 0
804.677693 541.974027 543.306309 1 0 0 0
805.314125 541.665922 544.029989 1 0 0 0
805.394543 542.445222 544.201111 1 0 0 0
805.324230 543.048768 544.468796 1 0 0 0
805.933067 543.206829 544.485352 1 0 0 0
805.979244 543.797825 544.166673 1 0 0 0
806.675778 543.490511 544.183956 1 0 0 0
807.226775 542.941725 544.636865 1 0 0 0
807.364627 543.557607 544.825551 1 0 0 0
807.152280 544.360121 544.897746 1 0 0 0
806.397679 544.172718 544.770150 1 0 0 0
806.928813 544.098516 543.537563 1 0 0 0
806.661925 543.799463 543.857322 1 0 0 0
806.442243 544.192878 543.947621 1 0 0 0
806.533179 545.430248 543.850515 1 0 0 0
806.040864 544.521050 543.707055 1 0 0 0
806.758347 544.464093 544.127477 1 0 0 0
807.540124 545.175870 545.086945 1 0 0 0
807.932585 544.295924 544.748986 1 0 0 0
808.904514 544.375724 544.808730 1 0 0 0
808.735396 543.061325 544.328037 1 0 0 0
808.552735 543.967172 544.421382 1 0 0 0
808.730149 543.719379 544.120677 1 0 0 0
807.726995 543.167400 543.567043 1 0 0 0
807.667796 543.867200 543.260458 1 0 0 0
808.672185 543.668805 542.881321 1 0 0 0
808.931969 542.746113 543.272585 1 0 0 0
809.191608 542.187980 543.276260 1 0 0 0
810.039400 542.968353 543.478974 1 0 0 0
809.353040 543.190012 543.805466 1 0 0 0
810.129512 544.290198 542.618024 1 0 0 0
809.756463 544.070983 541.687001 1 0 0 0
808.949205 543.587096 541.451756 1 0 0 0
809.436598 543.285166 542.081323 1 0 0 0
809.276270 543.921478 541.607290 1 0 0 0
809.042606 543.029148 541.994609 1 0 0 0
808.751527 543.984225 542.093648 1 0 0 0
808.383414 543.596439 542.285266 1 0 0 0
807.512398 543.350178 542.362003 1 0 0 0
807.769921 543.289754 541.661841 1 0 0 0
807.236724 543.927211 542.448036 1 0 0 0
807.055194 543.422125 541.146427 1 0 0 0
807.687230 544.069215 541.508383 1 0 0 0
806.673611 544.512522 541.172878 1 0 0 0
806.701900 543.578794 541.435576 1 0 0 0
806.528458 543.701640 541.051954 1 0 0 0
806.761273 542.905276 540.348379 1 0 0 0
808.378687 542.544527 540.634214 1 0 0 0
808.090524 543.264595 540.061006 1 0 0 0
807.741348 543.487584 540.632664 1 0 0 0
808.223948 542.860706 540.008076 1 0 0 0
807.563864 542.111716 540.488510 1 0 0 0
807.711056 542.642857 540.770580 1 0 0 0
807.534519 542.926217 541.469090 1 0 0 0
807.097998 542.141054 541.098250 1 0 0 0
806.544076 541.641355 540.652443 1 0 0 0
805.935761 542.142328 540.024005 1 0 0 0
806.333419 542.221199 540.689129 1 0 0 0
805.707977 543.040330 540.860175 1 0 0 0
805.923427 543.569364 540.554966 1 0 0 0
805.368701 544.022794 540.580382 1 0 0 0
807.085037 544.223001 540.577435 1 0 0 0
807.220490 543.763566 539.878263 1 0 0 0
806.817065 544.334436 539.756623 1 0 0 0
806.170765 544.886724 539.171191 1 0 0 0
807.425183 544.174369 538.768733 1 0 0 0
806.458800 543.807174 539.170866 1 0 0 0
806.787577 542.882056 539.414557 1 0 0 0
807.033778 543.817021 539.275919 1 0 0 0
805.939676 543.578706 538.478660 1 0 0 0
805.216691 543.368802 538.948508 1 0 0 0
805.219640 543.208232 538.418435 1 0 0 0
805.640018 543.104783 539.594949 1 0 0 0
805.429909 543.930974 538.117217 1 0 0 0
805.559606 545.044997 538.588179 1 0 0 0
805.488562 544.903744 538.830019 1 0 0 0
805.031806 544.339291 539.159268 1 0 0 0
806.439579 544.941428 538.311246 1 0 0 0
806.334311 545.521316 538.662167 1 0 0 0
805.388705 545.432067 537.795980 1 0 0 0
805.263012 545.130795 539.409440 1 0 0 0
804.860972 545.763771 538.802707 1 0 0 0
804.585618 544.991821 538.596199 1 0 0 0
804.693119 544.545458 538.019551 1 0 0 0
804.263253 544.431276 537.724477 1 0 0 0
804.457073 545.379877 537.862036 1 0 0 0
805.119646 544.761793 537.444154 1 0 0 0
805.672368 545.397504 537.157546 1 0 0 0
805.709750 544.612230 537.487888 1 0 0 0
805.214951 544.737097 536.598046 1 0 0 0
806.431747 545.257997 538.000228 1 0 0 0
806.412998 545.644114 537.553497 1 0 0 0
806.908569 545.973589 538.019060 1 0 0 0
805.811104 545.829702 538.535068 1 0 0 0
805.054082 545.949464 538.618630 1 0 0 0
805.446410 546.489177 538.319797 1 0 0 0
805.552952 546.590927 538.692837 1 0 0 0
804.833196 545.999826 539.557725 1 0 0 0
804.618143 546.999863 538.922949 1 0 0 0
804.698835 547.033159 539.666044 1 0 0 0
804.501656 547.674427 538.797796 1 0 0 0
804.026741 547.162627 538.984745 1 0 0 0
804.023699 546.698891 538.163007 1 0 0 0
803.510964 546.144741 538.883454 1 0 0 0
803.966013 546.326742 539.890469 1 0 0 0
803.643386 547.274168 540.225383 1 0 0 0
803.878324 546.758479 541.239212 1 0 0 0
803.932908 546.037676 540.614819 1 0 0 0
804.372370 546.117052 541.390603 1 0 0 0
803.747755 545.658225 541.421029 1 0 0 0
803.430855 545.253599 541.038136 1 0 0 0
804.260042 545.161840 541.219880 1 0 0 0
804.097785 545.455741 540.709464 1 0 0 0
803.383826 546.078057 540.743284 1 0 0 0
803.100513 546.706112 540.525933 1 0 0 0
802.577758 546.718285 540.901997 1 0 0 0
802.379291 546.026666 540.144872 1 0 0 0
803.067447 546.285563 539.671112 1 0 0 0
803.307177 546.487350 539.216871 1 0 0 0
804.246353 546.442565 539.384883 1 0 0 0
803.993352 545.719394 539.465086 1 0 0 0
803.763253 544.978813 539.174937 1 0 0 0
802.839796 544.712803 539.434477 1 0 0 0
802.517450 545.391478 539.465973 1 0 0 0
802.735974 545.013350 540.128890 1 0 0 0
802.652016 544.120802 540.087974 1 0 0 0
802.962906 544.995409 540.381476 1 0 0 0
802.386630 544.952052 541.130414 1 0 0 0
802.022779 545.279310 541.129694 1 0 0 0
801.296315 545.095369 541.270309 1 0 0 0
802.516847 544.543613 541.014816 1 0 0 0
802.291422 543.818363 540.929538 1 0 0 0
801.622543 544.176165 540.400795 1 0 0 0
802.068102 544.556131 540.879514 1 0 0 0
801.900932 545.325657 539.987639 1 0 0 0
802.170364 545.562804 540.370369 1 0 0 0
801.362376 545.149074 540.526634 1 0 0 0
801.064587 544.834561 539.985462 1 0 0 0
801.886692 544.345709 540.451329 1 0 0 0
801.441273 544.175407 539.866076 1 0 0 0
802.057158 544.615531 540.259561 1 0 0 0
802.211293 544.454803 539.289208 1 0 0 0
801.590658 545.553818 539.333226 1 0 0 0
802.009216 545.253863 538.968223 1 0 0 0
801.582242 544.866663 539.298189 1 0 0 0
801.630375 544.274553 538.180530 1 0 0 0
800.799055 545.596228 537.278484 1 0 0 0
801.416176 544.816329 537.365853 1 0 0 0
801.075704 544.682563 536.813432 1 0 0 0
800.248407 546.023318 537.125226 1 0 0 0
800.818346 545.116092 536.338792 1 0 0 0
799.975485 545.372317 537.002373 1 0 0 0
799.259886 545.237792 537.466108 1 0 0 0
799.022952 544.845288 536.837485 1 0 0 0
799.143585 544.351743 536.561024 1 0 0 0
800.056623 544.569602 536.691037 1 0 0 0
800.111342 543.647640 537.132524 1 0 0 0
799.716412 544.575616 537.456838 1 0 0 0
798.522953 544.269214 537.390817 1 0 0 0
797.850024 544.472588 537.581665 1 0 0 0
798.424306 544.045127 538.396977 1 0 0 0
798.711780 544.668995 538.329519 1 0 0 0
798.712861 544.286652 539.107627 1 0 0 0
798.870458 543.645008 538.921945 1 0 0 0
799.766823 543.633094 538.880028 1 0 0 0
799.342349 543.735613 537.818835 1 0 0 0
798.466765 543.686584 537.748192 1 0 0 0
798.604683 542.743352 537.727807 1 0 0 0
798.781540 542.488934 538.452464 1 0 0 0
798.925930 542.093022 538.036553 1 0 0 0
799.530195 542.667797 537.699340 1 0 0 0
799.802190 542.585768 537.381211 1 0 0 0
800.470549 542.268681 537.308148 1 0 0 0
799.447546 541.972111 537.053848 1 0 0 0
799.503568 542.568012 537.826155 1 0 0 0
799.514068 542.240690 538.336579 1 0 0 0
800.129044 541.749783 538.557003 1 0 0 0
800.388588 541.395840 538.808135 1 0 0 0
801.180609 542.345031 537.972537 1 0 0 0
801.103989 542.999904 538.014726 1 0 0 0
801.396092 543.014261 538.731521 1 0 0 0
800.402419 542.631599 538.648912 1 0 0 0
800.907373 542.586420 538.522060 1 0 0 0
800.492947 542.711276 539.224724 1 0 0 0
800.075961 543.049515 539.290781 1 0 0 0
799.801165 543.450442 539.492274 1 0 0 0
800.239740 543.101026 540.149204 1 0 0 0
800.318504 544.054965 539.639015 1 0 0 0
800.855874 544.242202 538.891622 1 0 0 0
800.672393 545.106468 539.423025 1 0 0 0
799.949143 545.070579 538.523409 1 0 0 0
800.482820 544.562593 538.408387 1 0 0 0
800.318757 544.033114 538.052896 1 0 0 0
800.638120 544.754485 537.720843 1 0 0 0
800.336515 544.977717 537.785449 1 0 0 0
801.160024 544.615047 538.293252 1 0 0 0
800.832775 544.000302 538.017681 1 0 0 0
801.141829 543.766187 538.815080 1 0 0 0
800.661364 543.519215 538.970706 1 0 0 0
800.592785 543.822694 538.334869 1 0 0 0
801.133927 543.826132 538.207802 1 0 0 0
801.066828 543.771691 539.317422 1 0 0 0
801.947579 543.695787 539.675345 1 0 0 0
801.773363 543.742291 538.834020 1 0 0 0
802.615031 544.274089 538.672498 1 0 0 0
802.595213 544.429827 538.011235 1 0 0 0
802.726417 543.567404 538.131041 1 0 0 0
801.728206 543.199620 538.090314 1 0 0 0
801.994937 544.004923 537.859188 1 0 0 0
802.074202 544.166085 537.293330 1 0 0 0
803.436971 545.253389 537.611202 1 0 0 0
802.625680 545.004239 537.623536 1 0 0 0
802.313576 545.156831 537.221949 1 0 0 0
803.134387 544.638762 537.109522 1 0 0 0
802.800199 545.123702 536.445810 1 0 0 0
802.897077 544.615493 536.868878 1 0 0 0
802.701084 543.650608 536.990299 1 0 0 0
802.445138 543.483529 537.642419 1 0 0 0
801.324979 542.544097 536.846170 1 0 0 0
801.377186 543.203070 537.276900 1 0 0 0
801.947390 542.853675 537.450673 1 0 0 0
802.239501 542.398777 537.165960 1 0 0 0
802.637763 542.386033 537.552567 1 0 0 0
802.146203 541.851870 537.818228 1 0 0 0
802.905403 541.429299 538.215704 1 0 0 0
802.001282 542.363060 538.234596 1 0 0 0
801.951062 542.722698 538.965204 1 0 0 0
803.119278 542.788911 539.705398 1 0 0 0
803.261763 542.255077 539.849366 1 0 0 0
803.895864 543.022069 539.803009 1 0 0 0
805.002542 542.053365 539.105758 1 0 0 0
804.592262 542.695479 538.617933 1 0 0 0
804.719955 542.583663 538.198761 1 0 0 0
803.822423 543.106182 538.377848 1 0 0 0
804.278799 543.333947 539.064166 1 0 0 0
804.486136 543.804114 538.454781 1 0 0 0
804.291112 543.601909 537.801621 1 0 0 0
803.940579 542.808265 537.738013 1 0 0 0
803.828634 543.859002 537.153711 1 0 0 0
803.299977 542.571911 537.220429 1 0 0 0
803.122775 542.994298 538.055950 1 0 0 0
803.400590 543.541717 538.001801 1 0 0 0
803.298925 542.827380 538.024611 1 0 0 0
803.002997 541.947798 537.791540 1 0 0 0
802.515075 541.250064 538.603654 1 0 0 0
803.246167 540.919338 538.910207 1 0 0 0
802.582189 542.027105 539.157931 1 0 0 0
803.900519 541.645986 540.027674 1 0 0 0
803.166018 542.419782 538.598723 1 0 0 0
802.878211 542.827464 538.747779 1 0 0 0
804.128956 541.948191 538.263933 1 0 0 0
804.205891 542.003453 537.769812 1 0 0 0
804.702524 541.096861 538.155788 1 0 0 0
803.869341 541.783534 537.553058 1 0 0 0
802.701277 540.520650 537.783174 1 0 0 0
803.735206 541.000107 538.077390 1 0 0 0
803.830408 540.789384 537.269578 1 0 0 0
804.207213 540.377116 536.779627 1 0 0 0
803.641524 541.075387 536.712641 1 0 0 0
802.980390 540.598746 536.839732 1 0 0 0
802.884513 541.031381 537.510338 1 0 0 0
802.560685 541.762564 537.037277 1 0 0 0
801.919900 540.887028 537.174166 1 0 0 0
801.155164 540.265166 537.109138 1 0 0 0
800.936197 540.008672 537.717902 1 0 0 0
801.480432 540.462555 537.652029 1 0 0 0
801.639553 541.301421 537.244676 1 0 0 0
802.258124 540.787896 536.439335 1 0 0 0
802.013999 539.968466 536.250889 1 0 0 0
802.047093 541.165306 536.188391 1 0 0 0
801.256303 540.773802 535.992736 1 0 0 0
801.454002 540.339858 536.613218 1 0 0 0
801.406638 541.588984 536.350631 1 0 0 0
801.808217 540.604496 536.482670 1 0 0 0
801.404508 541.049058 536.308153 1 0 0 0
803.012762 541.402870 536.534837 1 0 0 0
802.856555 540.630954 535.876649 1 0 0 0
801.890280 540.328262 535.372908 1 0 0 0
802.014810 540.169388 534.699404 1 0 0 0
801.541080 540.656725 534.578792 1 0 0 0
802.720835 540.745251 535.222027 1 0 0 0
801.820564 541.278254 534.991480 1 0 0 0
802.499099 540.848705 534.459695 1 0 0 0
803.125023 540.556042 534.628331 1 0 0 0
801.914144 541.121429 534.004409 1 0 0 0
801.429526 540.506964 533.683887 1 0 0 0
801.054582 540.708509 533.788860 1 0 0 0
800.826146 540.703263 534.952001 1 0 0 0
801.183991 541.136848 534.540254 1 0 0 0
801.031253 541.676987 535.408160 1 0 0 0
801.690808 541.243447 535.756952 1 0 0 0
802.154188 541.851219 536.375356 1 0 0 0
802.450986 542.287207 535.375162 1 0 0 0
801.662359 542.243660 535.090068 1 0 0 0
802.985209 541.423479 535.317616 1 0 0 0
803.162398 541.786708 535.017561 1 0 0 0
802.202886 541.809698 535.088725 1 0 0 0
802.545457 541.145152 534.843599 1 0 0 0
802.986684 541.943754 535.978816 1 0 0 0
803.373896 541.916687 536.296483 1 0 0 0
802.889936 542.479231 536.527180 1 0 0 0
802.985572 542.713862 535.351306 1 0 0 0
802.551252 542.173772 534.606343 1 0 0 0
802.510831 542.520312 534.311525 1 0 0 0
802.454910 542.035183 533.648397 1 0 0 0
802.105030 542.982878 533.322656 1 0 0 0
802.565492 543.781379 533.859948 1 0 0 0
803.061395 543.484869 534.350255 1 0 0 0
803.271651 542.536753 534.040531 1 0 0 0
803.159679 543.038922 534.711217 1 0 0 0
803.246261 542.711411 535.275365 1 0 0 0
802.262157 542.942296 534.822394 1 0 0 0
801.884948 543.687705 534.619976 1 0 0 0
801.575523 544.008986 534.105142 1 0 0 0
802.634131 543.287520 534.628422 1 0 0 0
803.143052 543.731732 535.392663 1 0 0 0
802.543208 543.823844 535.112272 1 0 0 0
801.648995 543.909201 535.400133 1 0 0 0
801.344577 543.064437 535.518933 1 0 0 0
801.426161 543.721810 534.389647 1 0 0 0
801.223931 543.202327 534.482443 1 0 0 0
801.323834 543.078525 533.787484 1 0 0 0
801.609006 542.162312 534.084656 1 0 0 0
801.518477 541.651893 533.448522 1 0 0 0
800.937506 541.873747 533.083334 1 0 0 0
801.232560 542.980434 533.153802 1 0 0 0
801.678417 542.489828 533.606942 1 0 0 0
801.596182 542.224108 532.687599 1 0 0 0
802.044451 542.178400 532.872728 1 0 0 0
801.757855 543.949116 532.759376 1 0 0 0
801.919619 544.106813 532.120976 1 0 0 0
802.575703 543.547672 532.548364 1 0 0 0
803.151186 543.969322 532.387187 1 0 0 0
802.731109 544.049433 533.250980 1 0 0 0
801.374335 544.795799 532.926280 1 0 0 0
800.827491 544.198924 532.722132 1 0 0 0
800.538955 544.670795 532.238651 1 0 0 0
800.938218 544.168391 531.998227 1 0 0 0
801.007774 545.288918 531.339197 1 0 0 0
801.434634 544.902292 531.926857 1 0 0 0
801.759834 544.998297 531.193983 1 0 0 0
801.299181 545.781584 532.091895 1 0 0 0
800.864784 545.023612 531.948620 1 0 0 0
800.267676 545.264132 531.363557 1 0 0 0
800.648433 544.440584 531.792338 1 0 0 0
799.936252 544.728455 532.014765 1 0 0 0
800.087389 543.781253 531.564456 1 0 0 0
799.018229 543.961719 532.134283 1 0 0 0
799.952129 544.035941 531.927635 1 0 0 0
799.980767 543.762795 532.782241 1 0 0 0
799.851337 543.358148 532.130181 1 0 0 0
799.055427 543.884856 532.907660 1 0 0 0
798.878784 544.668618 532.308177 1 0 0 0
799.568560 544.633837 532.726634 1 0 0 0
798.653981 544.290341 532.488759 1 0 0 0
798.539919 545.169439 531.830793 1 0 0 0
798.015538 544.568982 532.162898 1 0 0 0
799.093155 545.309350 532.458525 1 0 0 0
798.155679 544.933022 533.223932 1 0 0 0
798.569932 545.802051 532.855898 1 0 0 0
798.966097 545.470638 533.209119 1 0 0 0
799.404152 545.508521 533.702782 1 0 0 0
800.095171 546.291035 533.211463 1 0 0 0
800.370223 545.911002 533.784339 1 0 0 0
800.440585 545.423218 534.229336 1 0 0 0
800.588455 545.897260 534.642556 1 0 0 0
800.237321 546.414545 534.028817 1 0 0 0
799.380940 546.345626 534.379030 1 0 0 0
798.658642 545.765694 535.458226 1 0 0 0
798.762663 545.618451 534.759584 1 0 0 0
799.829811 545.685079 534.315650 1 0 0 0
799.371300 545.856673 534.634260 1 0 0 0
799.411529 545.098186 535.540674 1 0 0 0
799.352378 544.765313 535.987242 1 0 0 0
799.934887 544.251172 535.432854 1 0 0 0
799.953599 544.812671 534.525678 1 0 0 0
799.444008 544.564369 534.808148 1 0 0 0
799.414196 544.952706 534.565912 1 0 0 0
798.804774 545.198993 534.550763 1 0 0 0
798.786294 545.929710 533.860216 1 0 0 0
799.989581 545.364125 533.418150 1 0 0 0
799.791115 545.271834 532.754732 1 0 0 0
800.453895 544.925440 533.142490 1 0 0 0
799.462464 544.448166 533.352213 1 0 0 0
798.904099 544.569001 533.762439 1 0 0 0
799.477993 543.915197 534.754569 1 0 0 0
800.217381 543.781701 534.459865 1 0 0 0
799.645076 543.384909 534.874736 1 0 0 0
799.643278 543.174979 534.042147 1 0 0 0
799.972721 543.038754 534.801350 1 0 0 0
800.749245 543.037530 535.102170 1 0 0 0
800.800761 543.637898 535.600282 1 0 0 0
799.447399 543.164446 535.790966 1 0 0 0
799.905170 542.183809 535.911497 1 0 0 0
800.666760 542.239462 535.853014 1 0 0 0
800.858974 541.868681 534.936730 1 0 0 0
800.380279 542.316193 535.075501 1 0 0 0
800.474486 541.879928 534.550707 1 0 0 0
800.211323 542.585146 534.273575 1 0 0 0
799.531581 541.632355 534.020041 1 0 0 0
800.143892 541.516348 535.126451 1 0 0 0
799.228530 541.099237 535.268282 1 0 0 0
798.592000 542.346716 535.489693 1 0 0 0
798.415775 542.029901 534.872878 1 0 0 0
798.839114 542.850864 536.054808 1 0 0 0
799.419356 542.378963 536.872499 1 0 0 0
799.005834 541.985321 536.450965 1 0 0 0
799.309123 541.558858 535.642684 1 0 0 0
799.830961 542.191855 534.728406 1 0 0 0
799.453605 541.803573 535.129061 1 0 0 0
799.930662 541.368636 535.742585 1 0 0 0
800.333178 541.224545 535.377378 1 0 0 0
799.284450 540.720320 535.654532 1 0 0 0
799.795497 540.293089 535.103141 1 0 0 0
799.709384 541.345738 534.214944 1 0 0 0
798.668851 540.924185 534.715877 1 0 0 0
799.331874 540.611549 534.427353 1 0 0 0
799.636889 541.148519 534.764067 1 0 0 0
799.615045 540.598497 534.008808 1 0 0 0
798.809427 540.143053 533.823293 1 0 0 0
799.191478 539.911026 534.541796 1 0 0 0
799.263614 539.814125 535.485588 1 0 0 0
799.480642 539.272228 534.981077 1 0 0 0
800.126015 539.010930 535.287806 1 0 0 0
799.714385 538.511374 534.829858 1 0 0 0
800.480535 538.980753 534.547144 1 0 0 0
800.053027 539.612305 534.849070 1 0 0 0
799.720660 539.163657 534.256342 1 0 0 0
799.273714 538.763814 534.103534 1 0 0 0
798.682355 538.980228 534.103968 1 0 0 0
798.619915 538.637800 534.904825 1 0 0 0
797.541957 539.230389 534.513202 1 0 0 0
798.109151 540.289410 534.696238 1 0 0 0
797.938436 539.943715 534.976108 1 0 0 0
797.960055 540.554300 535.482947 1 0 0 0
798.651173 539.560152 535.128869 1 0 0 0
798.328181 540.657769 535.479365 1 0 0 0
797.524764 540.082678 535.596853 1 0 0 0
796.781075 539.751521 535.499235 1 0 0 0
797.264139 539.803539 536.265846 1 0 0 0
798.437659 539.543908 535.627755 1 0 0 0
798.437802 539.026043 535.914155 1 0 0 0
797.933283 539.814262 535.884547 1 0 0 0
798.151334 539.759899 536.523327 1 0 0 0
798.825076 540.366840 535.949550 1 0 0 0
798.519014 540.968483 535.429366 1 0 0 0
797.967175 541.578483 535.063454 1 0 0 0
798.276568 541.609666 535.771074 1 0 0 0
797.483753 541.229219 535.893565 1 0 0 0
796.729071 541.592841 535.893293 1 0 0 0
797.736213 541.053890 534.805166 1 0 0 0
797.517557 542.076612 535.254307 1 0 0 0
798.283955 541.458100 534.196468 1 0 0 0
798.210751 542.349930 534.433263 1 0 0 0
797.343144 542.495717 534.453418 1 0 0 0
797.726632 541.866050 534.475002 1 0 0 0
796.844060 542.138025 534.174406 1 0 0 0
796.560535 542.972988 534.433574 1 0 0 0
796.699371 543.559169 534.939491 1 0 0 0
796.234703 543.580122 534.800599 1 0 0 0
796.734705 542.547565 535.018072 1 0 0 0
796.949525 542.310592 534.970776 1 0 0 0
796.265916 542.901498 534.973796 1 0 0 0
796.631383 541.563575 534.600490 1 0 0 0
796.063633 541.768103 535.304534 1 0 0 0
796.939625 542.428529 535.632286 1 0 0 0
797.148467 543.141860 535.793993 1 0 0 0
797.434637 542.922851 536.306304 1 0 0 0
797.643909 543.359412 536.910367 1 0 0 0
798.077575 543.714247 536.264642 1 0 0 0
797.354122 543.999379 536.522913 1 0 0 0
796.857756 543.534473 536.167362 1 0 0 0
797.198224 543.166318 535.417522 1 0 0 0
797.425002 541.845174 535.736241 1 0 0 0
797.624158 542.486834 536.585531 1 0 0 0
797.165688 542.667386 535.809809 1 0 0 0
797.788352 541.779667 536.889488 1 0 0 0
797.097494 541.696374 536.601679 1 0 0 0
796.493281 541.283555 536.778527 1 0 0 0
796.215018 541.648558 537.450040 1 0 0 0
795.866331 541.155028 537.582665 1 0 0 0
795.569505 541.734229 536.761092 1 0 0 0
794.392307 541.200557 536.890831 1 0 0 0
795.359457 542.695136 536.509241 1 0 0 0
795.674806 542.411969 536.876768 1 0 0 0
796.182390 542.528379 535.816549 1 0 0 0
796.437245 542.366683 536.213027 1 0 0 0
796.314462 541.882481 536.737775 1 0 0 0
795.878031 542.013499 536.065544 1 0 0 0
795.787660 541.137865 536.321448 1 0 0 0
795.366693 541.671767 536.053820 1 0 0 0
794.677995 541.941942 536.574280 1 0 0 0
794.092352 542.661374 537.355855 1 0 0 0
794.860390 543.154141 537.285062 1 0 0 0
795.440406 543.190535 537.334268 1 0 0 0
795.621589 543.373585 537.526235 1 0 0 0
796.820263 543.654226 536.949689 1 0 0 0
796.053619 543.151723 536.364777 1 0 0 0
794.882185 543.890138 537.041772 1 0 0 0
794.904689 543.277564 536.673822 1 0 0 0
795.383002 543.889602 537.096314 1 0 0 0
795.800467 543.914605 536.803569 1 0 0 0
795.961238 543.736116 537.843261 1 0 0 0
795.113587 543.721245 538.178128 1 0 0 0
795.521371 544.260021 537.867690 1 0 0 0
795.199284 544.527106 538.857376 1 0 0 0
795.674002 545.196058 538.705308 1 0 0 0
796.309673 544.662906 539.005146 1 0 0 0
795.900372 544.262074 538.595333 1 0 0 0
796.996951 544.687599 538.420364 1 0 0 0
795.827844 545.001944 537.364480 1 0 0 0
796.507424 544.970035 537.566626 1 0 0 0
796.714309 544.469849 537.319505 1 0 0 0
797.510867 544.844215 537.062064 1 0 0 0
796.349478 544.150741 536.118110 1 0 0 0
797.333807 544.796751 536.660022 1 0 0 0
797.572025 544.502418 535.904385 1 0 0 0
796.904506 544.480532 535.577808 1 0 0 0
796.068510 544.475793 535.390340 1 0 0 0
796.028172 545.325254 536.051194 1 0 0 0
795.519792 544.457141 535.963906 1 0 0 0
794.790393 544.391254 536.581950 1 0 0 0
795.793607 544.443279 536.734631 1 0 0 0
795.344407 544.653448 536.975963 1 0 0 0
795.313329 545.263088 536.070960 1 0 0 0
795.473731 545.481948 536.985931 1 0 0 0
794.928252 544.740635 537.065332 1 0 0 0
794.477291 544.810055 535.917862 1 0 0 0
793.675672 544.404936 535.908807 1 0 0 0
793.557819 543.833248 536.588504 1 0 0 0
794.128400 543.538038 537.046075 1 0 0 0
793.384308 544.537284 537.268861 1 0 0 0
794.105748 544.047871 536.558404 1 0 0 0
794.420810 544.203991 537.666397 1 0 0 0
794.536855 544.142776 536.962618 1 0 0 0
794.173550 545.170425 536.682033 1 0 0 0
794.429179 545.152135 537.213719 1 0 0 0
793.952502 545.169913 537.378413 1 0 0 0
793.346804 544.805331 536.693641 1 0 0 0
793.857449 544.640340 536.580498 1 0 0 0
794.706420 544.616951 536.369656 1 0 0 0
795.241973 545.300435 536.198977 1 0 0 0
794.413610 545.743342 535.149747 1 0 0 0
794.513949 545.061203 535.244646 1 0 0 0
795.299889 545.038545 535.460828 1 0 0 0
794.844039 544.886308 534.607639 1 0 0 0
795.013513 545.419079 534.371950 1 0 0 0
795.865825 545.756398 534.711478 1 0 0 0
795.923481 544.184818 534.651124 1 0 0 0
796.473195 544.201065 534.259372 1 0 0 0
796.133006 545.218082 533.824717 1 0 0 0
795.757455 545.235728 534.518508 1 0 0 0
795.889271 545.652047 533.657501 1 0 0 0
795.891525 545.046746 533.528811 1 0 0 0
796.702190 544.761181 534.860316 1 0 0 0
797.235322 545.467817 535.042995 1 0 0 0
797.781690 546.303036 533.923028 1 0 0 0
797.770219 546.268330 534.750890 1 0 0 0
797.444128 547.211640 534.390307 1 0 0 0
796.266037 547.167027 533.922849 1 0 0 0
796.816302 546.668525 533.809396 1 0 0 0
796.598541 546.194504 533.595603 1 0 0 0
796.054206 546.745833 533.609107 1 0 0 0
795.087097 547.015971 534.359586 1 0 0 0
796.190981 547.079338 534.913011 1 0 0 0
795.558670 547.208964 535.316253 1 0 0 0
795.632618 546.351852 535.628930 1 0 0 0
796.217489 546.714008 535.912200 1 0 0 0
796.741304 546.920328 535.320185 1 0 0 0
796.992040 546.355637 534.780234 1 0 0 0
796.497462 546.034736 535.473038 1 0 0 0
796.541944 546.001888 534.675041 1 0 0 0
796.329486 545.610419 534.975061 1 0 0 0
797.507107 545.979549 535.281953 1 0 0 0
796.666220 545.372078 535.310175 1 0 0 0
797.001708 546.184353 535.832520 1 0 0 0
796.901089 545.328747 535.962747 1 0 0 0
796.363770 545.230763 536.305826 1 0 0 0
796.543645 544.735138 535.718625 1 0 0 0
797.687183 544.709683 535.359846 1 0 0 0
798.044617 545.188868 535.718927 1 0 0 0
798.217324 545.469040 534.671171 1 0 0 0
797.825821 545.937462 534.323599 1 0 0 0
797.914124 545.021999 534.388834 1 0 0 0
796.898701 544.923402 534.321671 1 0 0 0
797.879789 545.364839 533.905672 1 0 0 0
797.837028 544.656898 534.354864 1 0 0 0
797.119129 544.121111 535.044363 1 0 0 0
797.511561 543.565061 534.340125 1 0 0 0
798.218219 543.484724 534.857393 1 0 0 0
798.182448 543.482781 533.863707 1 0 0 0
797.090778 544.341172 533.710024 1 0 0 0
796.381774 544.529870 533.618254 1 0 0 0
795.993633 544.057802 533.983350 1 0 0 0
796.220722 543.461698 533.606707 1 0 0 0
795.865576 542.906368 534.214433 1 0 0 0
795.596102 542.865488 533.792419 1 0 0 0
795.509599 543.466072 533.799808 1 0 0 0
795.368561 544.227412 533.617402 1 0 0 0
794.974962 543.782676 533.792003 1 0 0 0
794.450611 543.080174 533.360290 1 0 0 0
794.384106 543.758789 533.466190 1 0 0 0
794.428176 543.906491 534.515967 1 0 0 0
793.495630 544.096855 534.662546 1 0 0 0
793.962753 544.510674 534.832418 1 0 0 0
795.601834 543.921540 534.880635 1 0 0 0
795.185291 543.921459 534.659325 1 0 0 0
795.390163 543.589664 535.474943 1 0 0 0
794.504480 544.174950 535.399385 1 0 0 0
794.682217 542.932329 535.874421 1 0 0 0
794.160440 543.414016 536.392746 1 0 0 0
794.279916 542.531267 535.426550 1 0 0 0
795.297450 542.316674 535.162045 1 0 0 0
794.225674 541.834323 535.615298 1 0 0 0
794.058924 542.633528 534.870722 1 0 0 0
792.982631 542.527862 534.808180 1 0 0 0
793.518207 542.064190 535.224774 1 0 0 0
793.280155 542.819727 535.934847 1 0 0 0
793.985191 542.231783 536.048279 1 0 0 0
793.548898 541.504380 536.472435 1 0 0 0
793.775899 542.386409 536.744399 1 0 0 0
793.952812 541.924167 536.962448 1 0 0 0
793.548200 542.026929 537.495270 1 0 0 0
794.341134 541.440277 537.659335 1 0 0 0
794.752545 542.108753 538.084435 1 0 0 0
795.033828 541.286540 537.584160 1 0 0 0
795.041560 540.987273 538.477121 1 0 0 0
794.019198 541.159359 538.465973 1 0 0 0
793.837389 541.976103 538.843134 1 0 0 0
793.096149 542.461252 539.183042 1 0 0 0
793.223805 542.530201 538.602776 1 0 0 0
792.617210 543.130709 538.584284 1 0 0 0
793.430954 542.691982 538.035342 1 0 0 0
793.380110 543.471753 538.283196 1 0 0 0
793.875047 543.170076 537.379442 1 0 0 0
793.884904 542.554005 537.998223 1 0 0 0
794.010066 543.552980 538.090623 1 0 0 0
793.541982 543.879518 537.510405 1 0 0 0
793.036041 545.137071 537.505430 1 0 0 0
792.959292 544.657753 538.341102 1 0 0 0
793.495990 544.928111 538.179487 1 0 0 0
792.949404 544.710763 539.012490 1 0 0 0
792.296709 545.154003 538.642959 1 0 0 0
792.988371 545.892686 538.452663 1 0 0 0
793.127902 545.069113 538.797427 1 0 0 0
793.725664 545.179968 539.071597 1 0 0 0
793.373715 545.403926 539.800721 1 0 0 0
794.070101 545.156225 539.714461 1 0 0 0
793.824653 546.022855 539.208769 1 0 0 0
793.142554 545.377127 539.615279 1 0 0 0
792.908817 545.948010 539.154717 1 0 0 0
792.739698 546.695850 539.295068 1 0 0 0
793.771445 546.439882 539.835361 1 0 0 0
792.881848 546.342817 540.161509 1 0 0 0
792.933723 546.386629 539.340630 1 0 0 0
793.718683 545.773510 540.302089 1 0 0 0
794.261266 545.652045 539.284508 1 0 0 0
793.929942 545.461694 538.577379 1 0 0 0
793.607786 545.861329 538.841367 1 0 0 0
794.000403 546.131179 537.934577 1 0 0 0
794.664753 546.498208 537.885534 1 0 0 0
794.145383 545.849997 537.334838 1 0 0 0
794.441848 546.030719 538.821562 1 0 0 0
794.768746 545.425732 538.560106 1 0 0 0
794.454160 545.087210 539.633072 1 0 0 0
794.982327 545.496498 539.926460 1 0 0 0
795.048312 545.092983 539.417800 1 0 0 0
795.469999 545.083918 539.988654 1 0 0 0
795.916568 545.919157 540.818229 1 0 0 0
795.228946 545.378752 541.253407 1 0 0 0
795.598992 545.993032 541.416270 1 0 0 0
795.634143 546.666509 540.722830 1 0 0 0
794.611935 546.539614 540.713581 1 0 0 0
794.926705 546.232347 541.297708 1 0 0 0
794.582342 546.660812 540.587984 1 0 0 0
794.846942 546.210192 540.189514 1 0 0 0
794.748769 547.505081 540.217780 1 0 0 0
795.271883 547.352423 540.006517 1 0 0 0
794.891066 546.714430 539.360768 1 0 0 0
794.675469 546.830216 538.973149 1 0 0 0
793.332884 546.732053 539.132257 1 0 0 0
794.190664 547.124384 539.444255 1 0 0 0
793.638562 547.486257 540.006719 1 0 0 0
794.037284 547.848950 540.741261 1 0 0 0
793.926819 546.886138 540.538897 1 0 0 0
793.698034 546.796237 541.077284 1 0 0 0
793.523176 546.265676 541.079633 1 0 0 0
793.564266 546.066532 541.734491 1 0 0 0
793.737442 547.110775 542.007692 1 0 0 0
794.266803 547.425169 541.896326 1 0 0 0
794.877782 546.997012 541.242499 1 0 0 0
794.022300 547.228366 541.261612 1 0 0 0
793.542998 548.229729 540.392661 1 0 0 0
794.755327 548.105786 540.713005 1 0 0 0
794.476376 548.501019 541.471215 1 0 0 0
793.901496 548.875070 540.740258 1 0 0 0
794.437853 549.217220 541.532714 1 0 0 0
795.011289 548.220007 541.963045 1 0 0 0
795.401169 548.113380 541.736532 1 0 0 0
795.000570 547.777073 541.113733 1 0 0 0
796.114833 548.127947 540.961690 1 0 0 0
796.014680 548.100378 541.707615 1 0 0 0
795.956072 547.340938 542.361785 1 0 0 0
795.285022 548.255348 542.580721 1 0 0 0
794.898111 547.508065 542.308134 1 0 0 0
794.772939 547.266874 542.404217 1 0 0 0
794.853821 547.288831 543.052938 1 0 0 0
793.840327 547.975631 543.861567 1 0 0 0
794.794948 548.216339 544.079942 1 0 0 0
794.003882 548.159042 542.917384 1 0 0 0
794.713853 547.952785 542.873809 1 0 0 0
795.643890 548.114301 543.610123 1 0 0 0
795.910622 548.405296 543.028188 1 0 0 0
794.590891 548.697470 543.159085 1 0 0 0
794.888477 549.186268 542.501093 1 0 0 0
794.442240 549.609107 543.518493 1 0 0 0
795.356112 549.971461 543.936202 1 0 0 0
795.056505 549.033677 544.223832 1 0 0 0
795.009521 549.424243 543.651596 1 0 0 0
794.373148 549.129174 543.525351 1 0 0 0
793.490529 549.524883 544.002509 1 0 0 0
793.406664 549.564948 542.992457 1 0 0 0
793.584496 548.968625 542.022275 1 0 0 0
794.226776 549.484938 542.212969 1 0 0 0
794.189307 550.106895 542.035897 1 0 0 0
793.962460 550.444293 542.618855 1 0 0 0
793.415474 550.141661 541.739208 1 0 0 0
793.504874 549.683565 541.191439 1 0 0 0
793.546251 550.355546 540.996006 1 0 0 0
793.396036 550.489928 540.069784 1 0 0 0
794.066206 550.658202 539.490537 1 0 0 0
793.685869 550.777888 539.160165 1 0 0 0
793.917565 549.838176 538.792006 1 0 0 0
794.308398 549.702729 539.659897 1 0 0 0
794.272919 550.251943 540.010154 1 0 0 0
795.213330 550.407913 540.018908 1 0 0 0
795.337394 550.578597 540.699535 1 0 0 0
794.987501 551.786119 541.266540 1 0 0 0
795.368132 551.136691 541.096750 1 0 0 0
796.551549 550.712645 539.862139 1 0 0 0
795.429222 550.300426 540.402571 1 0 0 0
796.084559 550.694587 540.241257 1 0 0 0
795.753764 550.372479 540.014450 1 0 0 0
795.784004 549.516953 539.482614 1 0 0 0
794.904921 549.812400 539.415137 1 0 0 0
795.928467 550.254435 539.357155 1 0 0 0
796.116266 550.008896 538.824454 1 0 0 0
796.859318 549.637576 539.717522 1 0 0 0
795.927840 549.756308 540.439235 1 0 0 0
796.609859 549.487522 540.899988 1 0 0 0
795.762838 549.705615 541.260884 1 0 0 0
795.051278 549.291305 541.362627 1 0 0 0
795.691059 549.889932 541.037575 1 0 0 0
795.536697 550.021570 542.052979 1 0 0 0
795.233016 550.712253 541.692193 1 0 0 0
794.825967 550.350932 540.955390 1 0 0 0
794.785917 549.796231 540.925042 1 0 0 0
795.082837 549.816637 539.971258 1 0 0 0
795.191360 549.134773 540.535722 1 0 0 0
796.200321 548.907679 540.944639 1 0 0 0
795.640498 549.194076 540.494049 1 0 0 0
796.453769 548.332200 540.161354 1 0 0 0
795.708197 548.223070 540.599075 1 0 0 0
795.115170 547.950127 540.154772 1 0 0 0
794.848849 548.911377 539.467620 1 0 0 0
794.886271 547.837410 538.379160 1 0 0 0
795.210818 547.969456 539.274863 1 0 0 0
795.291814 547.486672 539.382594 1 0 0 0
795.384533 547.087184 538.817962 1 0 0 0
796.037893 547.645876 538.406806 1 0 0 0
795.645719 548.076260 539.030092 1 0 0 0
796.157887 547.971796 538.711965 1 0 0 0
796.685693 548.143073 539.305239 1 0 0 0
796.798133 547.549593 538.882616 1 0 0 0
796.948978 547.374532 539.299345 1 0 0 0
796.495305 547.029228 539.590304 1 0 0 0
795.578308 546.185048 539.516037 1 0 0 0
795.619472 545.456021 539.498529 1 0 0 0
795.499604 545.505113 539.049646 1 0 0 0
796.263723 545.420109 539.465189 1 0 0 0
795.898014 545.912277 538.571946 1 0 0 0
796.330038 545.934991 538.963562 1 0 0 0
796.725405 545.471728 538.735264 1 0 0 0
795.855969 546.497525 538.923403 1 0 0 0
795.863444 546.760210 538.136953 1 0 0 0
796.496913 547.259886 538.178098 1 0 0 0
796.759125 546.475468 538.302889 1 0 0 0
796.732671 546.699500 539.176201 1 0 0 0
797.218799 546.583535 539.100511 1 0 0 0
796.734000 546.119275 540.193198 1 0 0 0
797.813804 546.050808 540.061512 1 0 0 0
797.043012 545.680933 540.077853 1 0 0 0
797.320326 544.885877 539.398903 1 0 0 0
797.301111 545.122299 540.118225 1 0 0 0
796.918899 544.438275 540.114637 1 0 0 0
797.891513 544.591976 540.433931 1 0 0 0
797.916269 545.170607 539.694007 1 0 0 0
797.844834 545.138729 540.402036 1 0 0 0
798.824889 546.122155 540.817797 1 0 0 0
798.752843 545.747361 540.681158 1 0 0 0
797.742875 546.005923 540.878919 1 0 0 0
797.869214 545.924156 539.879697 1 0 0 0
798.704753 545.656411 539.911556 1 0 0 0
798.315728 546.012118 539.434478 1 0 0 0
797.708710 546.718578 539.754670 1 0 0 0
798.593274 546.757142 539.879393 1 0 0 0
798.938428 546.414481 539.462060 1 0 0 0
799.541465 546.921124 539.345870 1 0 0 0
800.142400 545.995361 538.262998 1 0 0 0
799.386093 546.122712 538.009051 1 0 0 0
799.011417 545.905419 537.280542 1 0 0 0
797.590322 546.114810 538.319816 1 0 0 0
798.081185 545.985871 538.558210 1 0 0 0
799.486234 545.798361 538.690819 1 0 0 0
799.244715 547.422886 540.071175 1 0 0 0
798.962989 547.095750 539.159071 1 0 0 0
799.037524 546.954778 538.293861 1 0 0 0
798.441879 547.229077 538.549171 1 0 0 0
799.085606 547.640428 538.027558 1 0 0 0
799.152452 547.583279 537.463673 1 0 0 0
798.464121 547.610935 538.129085 1 0 0 0
799.102082 548.028251 538.366652 1 0 0 0
799.399291 547.888318 539.002628 1 0 0 0
799.274344 548.191913 539.292232 1 0 0 0
799.447691 548.340258 539.684642 1 0 0 0
798.673579 547.999763 539.438523 1 0 0 0
799.136415 548.297800 539.993483 1 0 0 0
799.427040 549.000650 539.807332 1 0 0 0
798.898079 548.950314 539.026413 1 0 0 0
798.584186 549.303415 538.431409 1 0 0 0
798.055943 548.705353 538.324970 1 0 0 0
797.640933 548.483868 537.945146 1 0 0 0
797.305467 548.105154 538.860065 1 0 0 0
797.855983 548.411569 538.914259 1 0 0 0
797.746964 549.715961 539.199218 1 0 0 0
797.525106 549.362190 538.962431 1 0 0 0
796.701691 548.807778 539.171665 1 0 0 0
797.675115 548.413454 539.899618 1 0 0 0
798.261982 549.411039 539.400800 1 0 0 0
798.066707 549.284350 539.790970 1 0 0 0
798.229870 548.481711 540.189102 1 0 0 0
797.753935 549.354485 541.024852 1 0 0 0
797.175739 548.836371 540.657113 1 0 0 0
797.985631 548.202361 540.681930 1 0 0 0
797.754243 547.985151 541.453449 1 0 0 0
797.190535 548.951864 541.393561 1 0 0 0
798.174181 549.328564 541.896820 1 0 0 0
797.369190 548.687492 542.013589 1 0 0 0
797.574980 548.039811 542.658641 1 0 0 0
797.120623 547.428254 542.557540 1 0 0 0
796.836505 547.869805 541.404597 1 0 0 0
796.482213 548.717673 542.055752 1 0 0 0
796.375739 548.859076 541.576139 1 0 0 0
796.699903 548.539132 541.118567 1 0 0 0
796.790460 547.469958 540.650547 1 0 0 0
796.053721 546.998939 541.623236 1 0 0 0
796.093102 546.446256 541.931005 1 0 0 0
796.804578 546.059534 542.382105 1 0 0 0
797.244321 547.101687 541.647977 1 0 0 0
797.853028 546.557889 541.813807 1 0 0 0
797.439045 546.648184 542.355111 1 0 0 0
797.780312 546.452596 542.653904 1 0 0 0
797.466274 546.740933 543.329230 1 0 0 0
796.328655 547.694872 542.863084 1 0 0 0
796.700199 547.627427 543.622388 1 0 0 0
796.561667 547.146239 543.754484 1 0 0 0
797.148695 547.176304 543.963066 1 0 0 0
797.335430 547.408892 544.675767 1 0 0 0
797.703636 547.471436 543.165734 1 0 0 0
798.056121 547.337723 543.607503 1 0 0 0
797.894076 547.818656 543.881946 1 0 0 0
798.571117 547.452172 543.456333 1 0 0 0
797.837810 548.541398 543.118685 1 0 0 0
798.368916 548.364576 543.800218 1 0 0 0
797.361087 548.108100 543.460573 1 0 0 0
798.537299 547.800536 542.908250 1 0 0 0
798.292260 547.802929 541.844188 1 0 0 0
799.681291 547.981971 542.518434 1 0 0 0
799.557875 548.227019 541.780539 1 0 0 0
799.273091 547.541138 541.543500 1 0 0 0
798.838327 547.698166 542.234045 1 0 0 0
799.584899 547.333978 542.026120 1 0 0 0
799.309512 546.984305 540.907755 1 0 0 0
799.420495 546.449046 541.995678 1 0 0 0
799.504950 546.935637 543.030844 1 0 0 0
800.582985 547.007081 542.360373 1 0 0 0
800.376867 546.536123 542.703506 1 0 0 0
801.450522 547.142916 543.068742 1 0 0 0
801.120564 546.569287 543.364174 1 0 0 0
801.058657 546.894797 542.403826 1 0 0 0
799.988539 547.660064 542.115492 1 0 0 0
801.009295 547.510821 542.040686 1 0 0 0
800.649602 547.601313 541.384856 1 0 0 0
800.804347 547.959252 540.945379 1 0 0 0
801.469097 547.454107 541.574803 1 0 0 0
801.522496 547.791178 541.207461 1 0 0 0
800.674155 547.241722 541.317545 1 0 0 0
799.994728 547.063212 541.450077 1 0 0 0
800.910299 546.511008 541.449152 1 0 0 0
800.839882 547.018250 540.792157 1 0 0 0
800.181197 546.882054 540.774210 1 0 0 0
800.291497 546.510696 540.155208 1 0 0 0
800.834038 547.671834 539.986466 1 0 0 0
800.015601 547.821058 539.901534 1 0 0 0
800.349120 548.533914 539.766779 1 0 0 0
799.800473 548.486066 540.320606 1 0 0 0
800.093246 548.446860 541.583696 1 0 0 0
801.368503 548.267277 541.871882 1 0 0 0
802.163165 547.892074 541.713539 1 0 0 0
801.757360 547.907274 542.459340 1 0 0 0
802.133214 548.269656 541.707976 1 0 0 0
801.725996 548.887756 542.472076 1 0 0 0
801.697483 549.206716 542.912071 1 0 0 0
801.955004 548.518707 543.199519 1 0 0 0
800.834133 548.210658 542.560872 1 0 0 0
800.214033 547.990780 542.758866 1 0 0 0
800.233852 548.749752 543.250607 1 0 0 0
799.208122 548.415502 543.372788 1 0 0 0
800.473400 547.618503 542.646362 1 0 0 0
800.827413 547.491984 543.485412 1 0 0 0
800.055662 549.411314 544.114365 1 0 0 0
801.698283 549.134417 544.033515 1 0 0 0
801.124413 548.922633 543.159297 1 0 0 0
800.800052 548.866238 542.498938 1 0 0 0
800.732467 549.730919 542.745109 1 0 0 0
800.568949 549.544853 543.162392 1 0 0 0
799.981347 549.098839 541.747159 1 0 0 0
800.261501 549.304804 541.928677 1 0 0 0
800.328564 548.951958 543.217996 1 0 0 0
799.520720 549.020368 542.683536 1 0 0 0
800.096123 549.305200 542.725419 1 0 0 0
799.472401 549.074657 543.545555 1 0 0 0
799.809171 549.770578 543.098055 1 0 0 0
800.249410 550.342731 543.245231 1 0 0 0
799.932946 550.657215 543.489844 1 0 0 0
799.360082 549.954734 544.218399 1 0 0 0
800.467118 549.833611 544.002143 1 0 0 0
801.057570 549.812367 543.730233 1 0 0 0
801.017474 549.094237 544.356613 1 0 0 0
801.438027 549.226410 544.846002 1 0 0 0
801.905069 549.832234 544.487646 1 0 0 0
801.196340 550.057615 544.703783 1 0 0 0
802.003489 549.955578 543.680842 1 0 0 0
801.149758 550.781080 543.502132 1 0 0 0
801.391683 550.837333 542.629673 1 0 0 0
802.286193 550.988949 543.678107 1 0 0 0
802.611533 550.472080 543.555415 1 0 0 0
803.200005 549.451607 543.403846 1 0 0 0
802.982956 548.833011 543.120217 1 0 0 0
803.713636 547.752567 544.119579 1 0 0 0
803.206263 548.633760 543.909501 1 0 0 0
802.841977 548.782695 544.499461 1 0 0 0
802.488630 549.140304 543.735401 1 0 0 0
803.623703 549.275921 543.599676 1 0 0 0
803.428758 549.852157 544.277104 1 0 0 0
803.130661 549.892977 543.863743 1 0 0 0
802.757208 550.288465 544.579259 1 0 0 0
803.663011 550.107624 544.961050 1 0 0 0
804.672835 550.371337 544.906588 1 0 0 0
804.370704 549.302229 545.200718 1 0 0 0
805.004129 549.611380 544.771380 1 0 0 0
804.132250 549.591821 544.485212 1 0 0 0
804.161266 550.137044 543.847217 1 0 0 0
804.560382 549.149853 543.080611 1 0 0 0
804.716143 549.346921 543.778345 1 0 0 0
803.930709 549.428179 543.257141 1 0 0 0
804.192143 548.022297 543.585521 1 0 0 0
802.862356 548.037730 542.753332 1 0 0 0
803.380126 548.784057 542.865693 1 0 0 0
802.763717 549.322714 542.658596 1 0 0 0
803.797092 549.449545 542.603607 1 0 0 0
804.145318 548.906984 542.390493 1 0 0 0
803.696030 548.871242 542.245546 1 0 0 0
804.696829 548.692898 542.027698 1 0 0 0
804.534744 549.566730 542.615407 1 0 0 0
804.146984 548.732580 541.127777 1 0 0 0
804.625424 548.288745 541.614317 1 0 0 0
804.643313 549.158224 541.789083 1 0 0 0
805.505540 548.889034 542.208488 1 0 0 0
805.337833 549.028910 542.641459 1 0 0 0
806.134830 548.172108 542.999969 1 0 0 0
806.653428 548.071797 542.438141 1 0 0 0
805.632842 548.964523 541.784258 1 0 0 0
806.139328 548.874423 541.180381 1 0 0 0
806.868716 549.379597 541.123500 1 0 0 0
805.780083 549.445453 541.787108 1 0 0 0
806.500409 549.160467 541.937466 1 0 0 0
806.122658 549.961321 541.058186 1 0 0 0
807.160743 549.558508 540.869272 1 0 0 0
